# 3D point list with one line of data per point:
#   POINT3D_ID, X, Y, Z, R, G, B, ERROR, TRACK[] as (IMAGE_ID, POINT2D_IDX)
# Number of points: 176, mean track length: 4.4431818181818183
65 0.029375139141737495 -2.4547948719019455 6.1247095679912151 35 35 35 0.85469875894871106 106 17 102 21 103 15 107 27 110 23 111 19 109 32
1 -0.088820389108764011 -3.9912553169372567 6.6935585499471877 255 255 255 0.17649300226230122 106 2 102 3
2 -0.1164036980580495 -1.0090157570875311 6.0015518315465677 57 57 57 0.8340865563702573 106 9 108 9 102 12 103 7
67 -0.1146232611253946 -3.582525231244829 6.9876183909972482 172 172 172 0.31001027570796019 108 25 102 33 103 29
3 0.061656469599442709 -3.157851572065467 6.3256377995235509 204 204 204 1.462583604991939 106 15 108 18 102 19 103 30 107 30 110 20 111 16 109 49
68 0.049650178035274328 -1.7225449828065416 7.2277377579600905 135 135 135 0.3672546917417846 106 46 102 39 103 39 107 44 110 36
4 0.052491078131663607 -4.1799254873074618 5.4037911466399651 42 42 42 0.84831989547981268 106 19 108 10 102 20 103 18 103 165 107 54 110 38 111 69 109 60 112 42
5 -0.22127704597888523 -2.5394376250090946 6.2518299541563467 124 124 124 0.26408376229851532 106 23 108 22 102 37 103 16 107 43
69 -0.19474277299877438 -1.307860422882007 7.21420692240482 134 165 247 0.48425933084160072 106 47 108 49 102 42 103 25 107 47 110 30 111 43 109 41 112 21 105 21
6 -0.072824267003113341 -1.6868954213111764 7.2247997944396527 198 198 198 0.2381677593169961 106 24 108 36 103 14
7 -0.12201919830748724 -1.640873219740367 7.13784127902961 159 190 254 0.28559260289837046 106 25 108 52 102 24 103 52
71 -0.15360709812509726 -3.6182007570289789 6.9415627291889042 253 21 21 0.33785187782332216 106 34 102 47 107 64 110 56 111 57 109 59
8 0.074520462580838595 -1.3763664556244462 6.9709614231312216 143 143 143 0.37372202841310909 106 26 108 38 102 41 103 23 107 21 111 35 109 21 112 30 105 40
11 -0.014551416496856024 -1.7931864792531973 -0.22600655897653524 47 76 228 0.011523429549362472 106 32 108 64
12 0.11980690825314369 -1.5152628870186979 6.8562568179113157 131 131 131 0.26081368670293786 106 33 108 37 102 40 103 46 107 46 110 29 111 33 109 38 112 36 105 26
76 0.015145123690518852 -0.71724234060898451 7.5251464988557881 73 73 73 0.8279778087851275 106 133 108 163 102 70 107 140 110 89 111 105 112 89 105 65
13 -0.098415598877088006 -4.4565252320602458 6.2209418117899578 37 37 37 0.74680323438668395 106 35 108 46 102 51 103 27 107 34 110 39 111 45 109 28 112 37 105 28
14 -0.060029391729816493 -4.538803238026925 6.467111433279837 45 73 223 0.4526289749992225 106 36 108 14 102 29 103 20 107 66 110 49
15 -0.22041919085415815 -3.8453667281723032 5.5044031443150976 54 84 235 0.42435203250060977 106 37 108 16 102 22 103 12 107 45 110 40 111 44 109 27 112 43 105 45
16 -0.036000423145979975 -4.1630818296496228 6.7909318688146296 252 156 33 0.28029671869096695 106 39 108 15 102 30 103 19
17 0.019438881997119371 -2.9513233307455078 6.2633445794406928 72 103 246 0.40623456344649422 106 42 108 27 102 35 103 32 107 37 110 41 111 56 109 50 112 44 105 36
18 -0.29257592325694626 -2.7508689468074725 6.6316886211869415 121 121 121 0.52409567344164942 106 44 108 28 102 36 103 33 107 41 110 45 111 50 109 33 112 31 105 25
19 0.048526375566202061 -0.38556743051466247 8.0088231839094703 53 84 235 0.36698703485323031 106 52 108 55 102 52 103 49 107 56 110 61 111 41 109 46 112 41 105 32
20 -0.27352226022940557 -2.8082084660532356 6.5719531884224534 71 71 71 0.41767514316092119 106 67 108 137 102 158 103 157
21 -0.25244120510740964 -2.7559908995060778 6.4747550069136013 255 255 255 0.22478368472935806 106 68 108 77 102 56
22 -0.038391990785237154 -2.4647075343609788 6.3553164893861336 62 62 62 1.7615996007603774 106 71 108 93 102 100 103 110 103 134
23 0.010957269620258909 -2.4105694977745062 6.1204484125736771 74 74 74 0.195943439749766 106 75 108 95 102 151 107 123
24 -0.065761911742690943 -1.6124405546811882 7.0713717356891808 58 58 58 0.452512573648712 106 80 108 162 102 66 103 136
25 -0.12380391242391683 -1.5571920982405336 7.0923313396774601 54 68 143 0.26194709417793177 106 81 108 99 102 164
26 -0.10851299916765544 -1.3648302050951724 7.4313707705576224 114 114 114 0.94651062607871062 106 83 108 155 102 67
27 -0.22469315380989954 -1.1345047857369264 7.1201912895118182 66 66 66 0.9063005244209027 106 85 108 201 102 133 107 161 110 134 109 85
28 0.028911959071704962 -0.36703087919138433 7.6620856923578025 255 255 255 0.57423053449038031 106 90 108 84 102 76
29 0.0039416818525617545 -3.0150282442767478 6.301141042391845 71 71 71 0.47101931723855994 106 91 108 130 102 125 103 161 110 112
30 -0.11251308018380241 -4.2315048597328282 6.3547703624365948 69 69 69 0.30850564310977407 106 95 108 117 102 87 103 92 107 96 111 165 110 194
31 -0.1303191734739074 -3.591076185633725 6.9571218198395783 72 72 72 1.2986391791804599 106 98 108 121 102 112 103 99 107 185 110 154 109 66 111 73
32 0.04829359146884956 -3.1212647151929027 6.2588857689945385 72 72 72 1.4859892218377504 106 103 108 127 103 104 103 164
33 -0.010162779112877508 -3.0731690144187076 6.3641005901644787 70 70 70 1.4185880254730667 106 105 108 74 102 119 107 117
34 -0.050965361596245956 -3.1744521184132881 7.0971706288706153 255 255 255 1.212704620015655 106 107 108 182 102 163
35 0.02313475987310179 -2.7848475641472472 6.2237762182378829 69 69 69 0.70172477460934002 106 108 108 89 102 159 107 181 110 163 111 134 109 84 111 115
36 -0.24181184002595432 -2.7947585967993138 6.4452159504507627 62 62 62 0.54456407569017984 106 109 108 111 102 93 103 107 107 118 110 113
37 -0.11547868217367456 -2.7785922232548947 6.3973609572170469 61 61 61 1.0251555924600653 106 118 108 139 102 80 103 156
38 -0.1029546001437016 -1.6651566706763974 7.1517254656280684 71 71 71 0.91972345130456767 106 119 108 161 107 130 102 64
39 -0.088234192290146965 -1.6625252576043148 7.1620721126039211 79 79 79 1.0329187032230616 106 120 108 187 103 66
40 0.058768618129224043 -1.589451675251355 7.0917168253180662 61 61 61 0.86346433923297283 106 122 108 165 110 127 109 107 111 90
41 0.067184256713656729 -1.496088318274756 7.0360467068685635 62 62 62 0.43735458395574012 106 124 108 157 102 123 107 165 109 129
42 0.099117058266029373 -1.4483013589593934 6.9094724552995181 74 74 74 1.0729898486276348 106 126 108 160 102 127 103 140 102 126 110 77 109 126 111 132
43 0.065921263407062239 -1.1516013168679688 6.8222534254073528 64 64 64 0.42867462067174333 106 131 108 113 102 79 103 76 110 82
44 -0.22696756259021103 -0.81784514276069775 6.9960430372920168 70 70 70 0.37829632719829892 106 135 108 177 107 135 110 85 111 204 109 138
45 0.017457847698422669 -0.39338134081530063 7.5013531803689686 51 51 51 0.30978624513401526 106 136 108 167 102 140
46 -0.20790894914546956 -0.056306411912592828 7.9715483901064399 67 67 67 0.26861183982045667 106 137 108 170
48 0.07798270111337173 -3.1897585751912874 6.1285845197311888 50 50 50 0.69262975149664074 106 139 108 184 102 114 103 129 107 188 110 109 111 167 112 166 105 104
49 -0.11854968431256743 -0.87894801885658169 6.1511067874843484 58 58 58 0.11232253191203422 106 141 108 218
50 0.073335249442905592 -3.0025132128798893 6.5592083315739966 58 58 58 0.24452931309322593 106 143 108 135 102 161 103 163 110 162 111 173 112 139
51 0.025467885531337411 -4.1353817817730869 5.5906963678852364 65 65 65 0.39619632749000427 106 146 108 118 102 86 103 95 107 144 110 139 111 125
52 -0.12212753501689787 -0.711059470504943 6.3142764439433776 230 255 255 0.30781947887536482 106 171 108 204 110 190 111 140 112 151 105 151
53 0.020412969172152556 -0.298047046641844 7.4235848059096314 52 52 52 0.33973941128237634 106 173 108 171 102 141 103 152 110 193 107 147
54 -0.095427837018578751 -4.4376581409069917 6.1023408162955057 15 15 15 0.17560233532411101 106 174 108 180
55 -0.090339067355692262 -1.9681844379250182 6.6618427363218222 255 255 255 0.27514045120978925 108 0 107 0
57 0.023834542812150243 -1.1698115434819931 7.5143986149766588 255 255 255 1.5035850194103582 106 5 108 6 102 5 103 5 107 9 110 9 109 3
58 -0.04692541827298459 -3.3899284742967883 6.3096006298478216 68 75 75 0.68356763649766128 106 6 102 6 103 10 108 24
59 -0.086222863990646118 -3.2317713482214696 7.5108363356988725 255 255 255 2.2106320994001125 106 7 108 17 102 7 103 9
61 0.043309695808648789 -2.7902278079492815 6.199451683267438 255 255 255 1.2194939424974154 106 16 102 14 107 39 110 22
73 0.036429379042946158 -2.5647437819072172 6.0946562012343799 255 255 255 0.96362747317695374 108 31 102 54 110 168
74 -0.072112446134106431 -2.6089697219606496 6.3258626731907563 74 74 74 0.93763053683424968 106 60 108 90 102 55 103 122 110 119
77 -0.28400837246075905 -2.7779859882949665 6.5986886430523199 73 73 73 0.25045219084056192 106 92 102 81 103 106 107 176
79 -0.087930391344465661 -3.5486825997619955 7.0638741190835539 70 70 70 1.1489101125611658 106 101 102 90 103 100
80 0.064842928013061699 -3.2990117447084031 6.3052069419850376 255 255 255 1.075433385348854 108 65 102 92 110 108 111 168
81 0.024834573014976755 -2.6079289751447758 6.0897922261421096 74 74 74 0.5251684206221422 106 69 102 94 103 108 110 165
82 -0.19994152635954973 -2.5431925275809868 6.1501718595815964 70 70 70 0.52044496328161016 106 70 102 97 103 109 108 92 110 116 107 120 111 172 109 164
83 -0.20690428560686991 -3.8122021899923357 5.7316322915154263 60 60 60 2.031127490425606 108 120 102 108
84 -0.03871859083103972 -4.0206457200469403 6.7720685750530176 70 70 70 0.58370067164044126 106 113 102 109 103 119
85 -0.23684567315530217 -3.1158895407725176 6.5578942221976275 68 68 68 0.30781554667384858 106 106 102 118 110 195
89 -0.23746740138467021 -2.6987210696188502 6.4392124757667704 63 63 63 0.51619383691305221 106 148 102 155 103 155
90 -0.10689566857115618 -0.13240555549173669 7.2550693163492506 255 255 255 0.6675361407259407 106 10 102 9 107 12
91 -0.15812635390913143 -1.0054023803422392 6.1258569119368724 255 255 255 1.5865719169818615 106 8 102 10 103 24
92 -0.22652079454418669 -0.04559788047215612 8.0831246212295724 126 126 126 0.53881075313674598 106 30 102 25 103 48 107 50 110 33 111 42 109 48 112 23 105 39
93 -0.07497525061339759 0.23077067945358612 7.2771726914473378 113 113 113 0.59329028452566912 106 31 108 43 102 26 103 42 107 51 110 34 111 29 109 24 112 14 105 17
94 -0.020565002688282093 -0.56677908714498837 6.9256019198051604 254 149 149 0.17593005966840131 106 29 102 45
95 0.016140977843147383 -0.44172124140304447 7.778822101112052 155 155 155 0.36630853862435392 106 28 102 46 103 26 108 40 107 49
96 -0.041579727833996806 -0.6574211525832333 6.4702958416466458 69 69 69 0.38153043241232787 108 109 102 74
97 0.033901176074485513 -0.42512919464360677 7.8819958609602194 54 54 54 0.6705054540102624 106 145 102 138 110 146 109 146
98 -0.064446814186784121 0.11310054978186913 7.2152133613863052 67 67 67 1.0691088596053138 106 138 102 146 103 151 108 173
100 -0.06858266723935888 -1.1023220840144146 6.801702700950881 255 255 255 0.09922637345492559 108 3 103 3
101 -0.18543720200603023 -3.7799801748601762 5.8127351797791205 152 152 152 0.18849741238585704 108 11 103 8
103 -0.15500726580640631 -3.591473967051829 7.1240635433577113 251 59 59 0.000642460158167657 108 48 103 28
104 -0.021247540424812698 -0.72083958183072749 6.3652939354715592 247 34 34 0.33335268518593675 108 62 103 41
105 -0.13832273243145113 -0.071327859161250687 6.6762019395632732 180 100 19 0.47943517988765522 102 23 103 44 107 32 110 26 111 26 112 24 105 19
106 -0.11312012113672379 0.33753271577866101 7.0148556400941775 75 105 231 0.34099413752510283 102 27 103 58 107 52 110 35 111 28 109 14
107 -0.19705374455722802 -3.8727205875805568 5.8748376115660257 255 255 255 0.072229593124139402 108 72 103 60
110 0.070617644169162164 -1.2414232766316688 6.9664603706385977 102 102 102 0.41845572295754518 106 93 103 73 107 153 111 139
111 -0.13567394669251459 -0.17573239033810678 6.593582670156664 61 61 61 0.48803748952171849 102 77 108 85 103 79
112 -0.07410207827065747 -4.5170888254543549 6.3503799554848781 65 65 65 0.32578002556789787 108 115 103 86
113 -0.041531791398662483 -4.2643991824623315 6.7775300852914402 50 50 50 0.084241056385388952 108 116 103 91
114 0.042973838917234192 -4.1794181311628771 5.4782083037361602 56 56 56 0.35324964845448142 102 85 103 93 107 142 111 155
115 -0.19050217279730697 -3.9633160077023026 5.9797483170544687 59 59 59 0.052526357131551807 108 119 103 96
116 -0.068238099882224637 -1.8349967387038908 7.0012230217428737 48 48 48 0.23354368927974406 106 115 108 79 103 116 110 122
117 -0.13221464853119408 -1.0453623607531985 6.231623931994771 255 255 255 1.1486287945696665 106 132 108 169 103 146 102 134
119 -0.011898422634703523 -1.4108371983759358 5.5391888948560357 255 255 255 1.9856128042556929 102 2 107 4 110 6
120 -0.087855297083581876 -0.9866580419110943 6.1582509144924282 255 255 255 0.78303933686462424 106 18 107 17 102 18 110 13
121 -0.24329252826689435 -1.0817937182047057 7.2911320527983241 182 182 182 0.75787633355236728 106 22 107 22 110 28 111 38
122 -0.18733830723651074 -3.7676383690927704 5.8453456172867959 136 136 136 0.41236662600026658 106 21 107 35 110 18 111 46 109 29
123 -0.05506052062915074 -2.6854567329914216 6.4724652876540762 70 101 245 0.34661490160885355 102 15 106 14 107 42 110 44
124 -0.15067693338997232 -1.5819193777418941 7.0025706535425636 255 255 255 0.50867306415386659 106 12 107 53 102 17 110 46
125 0.073942225797141187 -3.1112123804167484 6.3462529090377942 255 255 255 0.50138155396202355 106 104 107 70 110 64 111 71 112 58
126 -0.094062564244911509 0.30077966117066285 7.118088969598837 59 59 59 0.81422304775180321 102 148 107 94 110 96
127 -0.065807613691805072 -1.9487929854078214 7.0438907237313426 94 94 94 0.37442878631407672 106 111 107 99 110 176 111 127 109 154
128 -0.21099028468895251 -1.242070386415526 7.2100003437560369 62 62 62 1.4426208683713933 102 130 107 102 110 131 107 158 111 187 109 113 112 86 105 63
129 -0.039838419859741896 -2.8703969954466224 6.6852252252123261 255 255 255 1.4234292862766038 106 59 107 119 102 59 110 166
130 -0.104260681384824 -2.4363610155436279 6.3717555362844269 133 133 133 0.80652142024657603 102 154 106 74 107 125 110 171
131 0.023396631893191792 -1.7305994983278128 7.3540920703767272 73 73 73 0.38249853868738481 102 63 107 131 110 126 109 140
132 -0.2471091434575087 -1.2245914235875186 6.8886286854214553 66 66 66 0.57665225365643202 106 128 107 133 110 81 111 94 109 132 112 81 105 98
133 -0.10770363336522921 -2.3071248472209365 6.4139487343611483 85 85 85 0.5286782609155426 102 83 106 152 107 170 110 174
134 0.039218487578131574 -3.0793517817612983 6.3413021130162246 71 71 71 0.43964338986631352 102 120 107 183 110 159
135 0.051697432421883231 -3.433807512130262 6.4430756043555695 53 53 53 0.16956894476440307 102 89 107 189 110 152 111 202
137 -0.23003241230091404 -3.3493338983938736 6.0305167128629407 255 255 255 1.6865516411215347 107 3 110 3 111 3 112 8 105 6
139 -0.12960077488722405 -0.86829697613793833 7.2457997633092601 75 163 163 0.68373433604545752 107 11 110 11
140 -0.06057899705699988 -0.66526814431801073 6.4659557564708496 134 134 134 1.2050254987909685 102 44 110 24 111 24 109 71 105 14
141 -0.0080371264324429724 -0.63083214150674949 7.5967107030530165 255 255 255 0.79273491026540432 102 43 107 19 110 25
142 -0.019813397303844973 -0.63444184252569902 6.5421976483916371 251 74 74 0.27729002855553775 107 48 110 31 111 37 109 42
144 -0.019830801776444369 -2.3231885197235784 6.6011598256696518 49 49 49 0.92519791743076474 102 28 106 45 107 67 110 52
145 -0.12495277473550213 -0.76901419941710092 7.5241912323338571 250 59 59 0.250687045823762 107 59 110 58 111 25 109 16
146 -0.1045395536845007 0.32545152129448685 7.0723180416010205 51 54 68 0.053813535319989919 102 149 110 71 111 80
147 -0.00047526609957122492 -2.3708947972113688 6.1012969301376483 72 72 72 0.94662800591358209 107 124 110 73 111 120 109 98
148 -0.080251574866893521 -0.6846600927138039 6.3951594255218422 75 75 75 0.63238550546887962 106 89 107 75 110 86 109 72 111 82
149 -0.043134994670544817 -0.65258240767443276 6.4908982530609105 73 73 73 0.86826109752015768 107 74 110 88 111 76 109 70
150 -0.059551376840725055 0.046007492345481495 7.0760034405009549 73 73 73 0.46060796192789349 107 92 110 94 111 124 109 86 112 92 105 68
151 -0.16337520096073982 -3.810284002847145 5.7033693965313512 66 66 66 0.63818377120685277 107 109 110 101 111 159 109 91 112 102
152 -0.21347707757812448 -2.543194634193461 6.2102660371447964 70 70 70 0.31398330037833505 107 121 110 118 109 160
154 -0.20477697314998383 -1.861146709360807 7.0627077104454878 67 67 67 0.47187803963822722 106 79 110 121 102 53
156 -0.19667636882856876 -3.752192543691574 5.6945732519465873 64 64 64 1.0669373751015878 107 192 110 148 111 160 109 118 105 79
157 -0.20511546661504176 -0.061663517039868491 7.9143011108798156 67 67 67 1.2360800152847464 107 150 110 149 111 153 112 97 109 150 105 71
158 -0.18640859092705314 -3.4586644752652282 5.8804032165247211 103 103 103 0.48113566382909739 107 113 110 150 111 166 109 168 105 82 112 99
159 0.040111998572819399 -2.2932718818531312 6.3422460197538646 66 66 66 0.27726112166154682 106 151 107 194 110 173 111 182 112 141 105 87
160 -0.25609019573840519 -1.0534293418290579 7.3714344075305407 55 55 55 0.4882957024008574 107 162 110 188 111 145 112 147 105 64
161 -0.1302565617807836 -3.8650959770896747 5.305144616486861 255 255 255 1.189318654040016 110 7 111 0 109 0 107 5
162 -0.104671534179419 -2.2662835765339184 8.2831655977890204 255 255 255 0.97858530484128892 107 26 111 22 109 25
163 -0.24095501633532976 -1.1451019095267623 6.9430073747311374 88 88 88 0.56495454535270995 110 133 111 96 109 111
164 0.03507073488204155 -2.3982176057822056 6.2841862828449289 80 80 80 0.98888144541580547 107 172 111 121 109 130 112 138 105 143
165 -0.21335449448680685 -1.9248837858111782 7.0974680645431185 81 81 81 0.55605682213206831 107 100 111 128 109 169 112 152
166 -0.20642041214346482 -1.8490449179241972 7.1890149785656909 74 74 74 0.29420599584018969 107 155 111 129 110 120 109 124
167 -0.15159570162603953 -3.6134852129787456 4.7071296789327697 47 47 47 0.83774411809129823 110 100 111 154 109 88 107 104 112 169 105 78
168 -0.17660260939897562 -3.839643443112768 5.803023978574803 67 67 67 1.396739125816167 107 191 111 161 109 119 105 103
169 -0.26507528396907343 -2.7584179025077571 6.4863516044914951 146 146 146 2.0578310049329978 107 178 111 177 109 97
171 -0.11946731252568372 -0.89637319706405616 6.1970026403300986 50 82 82 1.7167900466301427 110 16 111 13 109 5
172 -0.04853247658417275 -3.4769787867520634 7.0901551812769101 82 132 132 0.58490100417275792 107 14 111 9 109 7 110 12
174 -0.086943894935823593 -0.15854606996328047 5.9338503829644011 255 255 255 0.51954529886237677 111 15 109 17
176 -0.14027745688182044 -3.5522367767248704 4.4335927449240655 114 114 114 0.2383469590130462 107 31 109 26 112 35 105 23
177 -0.050700751185978485 -3.5318246434166509 6.0577123559531501 212 34 34 0.62449097987413116 107 36 111 54 109 30 105 35 112 33
178 -0.17557674247062183 -1.3816336349182263 7.0794064741904981 255 255 255 0.41136015385414543 107 33 111 36 109 40 110 37
179 0.015871992016211534 -0.42462863081234015 7.6015237761239032 60 60 60 0.22356576346576429 111 40 109 45 112 38 105 31
180 -0.13070648634739673 -0.91880987091161492 6.1016452820632132 67 67 67 0.56617673685333181 110 57 111 79 109 63
182 0.056454377057440171 -4.024659385464739 5.2511999043200683 19 19 19 0.71026748631046666 107 105 109 89 112 170
185 -0.040636600052362172 -3.4150744585816457 5.4139773851959241 86 86 86 0.69303302232885278 111 158 109 117 112 160
186 0.034153013898159001 -1.7663743665614127 7.3607544623844969 79 79 79 0.96984557603045829 110 125 111 133 109 127
187 0.02782417348128307 -0.39516296887529445 7.7434027550707087 68 68 68 0.98529469117098134 111 151 109 145 112 93 105 138
188 -0.09427759044047819 -4.4318750355984031 6.0472159231069558 35 35 35 1.1867384305820654 107 106 110 140 109 116 110 196 111 199 112 173
192 -0.092345925498454204 -1.5303851814710165 6.4770102381606813 255 255 255 2.0957412745026009 109 4 111 6 112 3 105 3
193 0.00024206186955276363 -2.3225938882758177 6.3923958713528597 255 255 255 0.97060165216571248 109 10 111 11 112 9 105 10
194 -0.14969854813440389 -1.4406517393526395 5.9895613695131757 139 139 139 0.22101779216873055 109 19 111 21 112 19 105 18
195 -0.18871344384375383 -1.986472111803075 7.2593659074666341 255 255 255 0.41320603354961233 109 18 112 20 111 32
197 -0.20370173708020808 -1.3125973472082579 7.0987009098650962 255 255 255 0.59642166028518029 109 75 112 52 111 81 105 55
198 -0.027034842587549856 -3.3208566401028108 5.4007459491531158 255 255 255 0.28116718830492665 111 66 112 75 105 61
199 -0.23563141214001712 -5.2452618601696583 11.409356504290855 255 255 255 1.2088211627537335 111 85 112 91
200 -0.1428529856724462 -3.4978346546794801 4.5061559092301371 51 51 51 0.58304353142417475 109 87 112 101 105 102
201 -0.051410773061960902 -3.3233283503233206 7.3572149052976235 255 255 255 0.45572770222927433 109 155 112 126
202 -0.042627028347558465 -3.5101104305410087 5.3306102314307191 70 70 70 0.7413090788897031 109 90 111 157 112 159
203 -0.24272964005809344 -2.86606119890248 6.4784014506719245 82 82 82 1.639821510523656 109 23 111 18 112 25 106 43 103 17 107 40 110 43 105 22
205 -0.00049214190857923439 -2.5569239443414808 5.7325419771853259 255 255 255 0.13867806666635343 112 5 105 5
206 -0.067664570403305979 -2.9174703513164388 6.1714735289690843 255 255 255 1.7834150991452489 109 11 112 12 105 9
208 -0.03689769440655457 -2.7765120124703078 5.3862586854087304 117 117 117 0.085123923182998051 112 18 105 34
210 -0.12703028868084382 -0.46920052532069184 7.9738097665040764 71 71 71 0.15122049685088412 112 192 105 69
211 -0.1259280984649005 -1.4934409164341411 6.3764152119187116 72 72 72 1.070794698615926 109 64 105 91 111 75
212 -0.17330127107795884 -1.2213940771532286 7.1604255572917932 67 67 67 0.98523011384358761 111 98 112 85 105 101 109 112
213 -0.013106516080927564 -0.3902812954061714 7.7858039743268952 69 69 69 0.30757374541016702 112 95 105 133
214 -0.02381186677214666 -0.52885657652470952 8.7904085228605613 57 57 57 0.41783118484185466 112 150 105 134
216 -0.24278910605388404 -0.96272013296503911 7.1879124181776834 70 70 70 0.15691044988782382 112 146 105 67
