# 3D point list with one line of data per point:
#   POINT3D_ID, X, Y, Z, R, G, B, ERROR, TRACK[] as (IMAGE_ID, POINT2D_IDX)
# Number of points: 301, mean track length: 7.3986710963455149
65 2.3198436475023549 -3.4419737931627865 55.387745881553215 73 77 78 0.19678847011505818 16 103 11 97 43 103 50 97 7 97 46 97 9 89 40 89 13 88
1 4.0551238597994343 -0.15681230954849679 55.250837203718987 255 255 255 1.9163576266315829 16 0 11 0 43 0 50 0 45 0 3 0 7 0 46 0 9 0 40 0 13 0
9 -8.9418621803037723 3.4351554396980553 61.75339553166679 83 187 186 0.15312359508248602 16 10 11 11 43 10 50 11 45 13 3 13
67 6.7256393208637668 4.610855456073752 56.595308327734834 69 71 71 0.14005882873680198 16 106 11 141 43 106 50 141 45 157 3 157 7 171 46 171
3 3.4985220258495939 -8.0084370508626925 58.237513838455435 255 255 255 2.0237557906067978 16 3 11 1 43 3 50 1 45 2 3 2 7 3 46 3 9 3 40 3 13 3
68 -15.665033703817434 4.6927152760106452 60.365764928976375 40 41 40 0.61657050543261382 16 108 11 124 43 108 50 124 45 106 3 106 7 164 46 164 9 216 40 216
4 11.568163716117486 -4.6686395606080682 55.411946915179271 255 255 255 1.054648555624857 16 4 11 4 43 4 50 4 45 3 3 3 7 6 46 6 9 5 40 5
5 17.468029225489794 2.2581647285066619 56.287582928796617 90 90 90 0.96887854085840674 16 6 11 8 43 6 50 8 45 5 3 5
69 -3.2291658260787646 4.7961848550555004 54.408594746140011 49 49 49 0.35509099728572036 16 110 11 108 43 110 50 108 45 155 3 155 7 162 46 162 9 176 40 176 13 164
6 10.379604200966721 -0.5333075997907627 56.078920897940172 255 255 255 1.3696120309201367 16 7 11 5 43 7 50 5 45 7 3 7 7 8 46 8 9 8 40 8 13 8
70 -14.598122422506128 4.9862580886679284 58.433553047687198 252 255 255 0.97167461075233919 16 111 11 57 43 111 50 57 45 71 3 71
7 -1.6148916474987027 6.477288005086419 55.129315064548834 255 255 255 0.80215537237449197 16 8 11 9 43 8 50 9 45 8 3 8
71 4.756256676961887 5.5543801618389379 58.290063989331607 103 103 103 1.0078586135256293 16 112 11 193 43 112 50 193 7 160 46 160 9 178 40 178 13 149
8 -1.4915025267783282 2.7993516851384697 61.5224990730608 255 255 255 1.1723862307051367 16 9 43 9 45 12 3 12 7 10 46 10 9 11 40 11 13 13
72 -8.6254856115348861 9.3347892704359712 59.415925014680212 73 73 73 0.88807179473729103 16 116 11 145 43 116 50 145 45 149 3 149 46 242 7 242
10 5.648876252845584 3.9222837364391947 59.953825576693369 109 110 106 1.5184781547277661 16 11 11 14 43 11 50 14 45 10 11 225 50 225 3 10 7 11 46 11 9 12 40 12 13 10
11 -8.1594431449167519 8.6843901730559807 55.927908565971144 70 70 70 1.0478584179917938 16 13 11 13 43 13 50 13 45 14 3 14 7 13 46 13 9 15 40 15
13 -12.30365782620626 -1.4034119286828659 58.382941968657732 74 74 74 2.1145789221805935 16 15 11 17 43 15 50 17 45 18 3 18 7 14 46 14 9 17 40 17 13 19
15 -7.3724305368604943 5.1736438252035999 57.35301351576026 112 111 109 0.61624102132699998 16 17 11 15 43 17 50 15 45 20 3 20
16 0.22144104178307047 4.9459234148732918 58.88254947630432 254 255 255 1.7565559931433274 16 18 11 12 43 18 50 12 7 20 46 20 9 34 40 34 13 33
17 -7.7662503277832871 -0.24831352455838979 60.029044621201102 255 255 255 1.2082520290268655 16 19 11 51 43 19 50 51 45 34 3 34 7 24 46 24 9 18 40 18
21 -12.267423316516753 -10.328879114323557 51.070401318809296 135 135 135 0.74689565521362433 16 24 11 18 43 24 50 18 7 25 46 25 9 35 40 35 13 37
22 39.378903434904316 -4.5533980955080953 45.725901195777752 132 132 132 0.36382677030936272 16 25 11 30 43 25 50 30 45 27 3 27 7 23 46 23 9 27 40 27 13 36
23 36.752278544766156 -21.949929925074411 43.453577506305201 109 144 235 0.43929578758786697 16 26 11 19 43 26 50 19 45 40 3 40 7 18 46 18 9 20 40 20 13 38
24 -7.9903435858952401 -6.1489790624054361 57.475386663608099 120 120 120 0.36643170402831143 16 27 11 25 43 27 50 25 45 23 3 23 7 16 46 16 9 21 40 21 13 23
25 0.77376446389895037 -1.4386911843637538 57.265370417440792 23 43 141 0.71154468959925665 16 28 11 21 43 28 50 21 45 24 3 24 7 27 46 27 9 19 40 19 13 30
26 1.378898058174491 -5.2402388368468111 55.996521664357317 233 63 62 0.15776138803352902 16 29 11 42 43 29 50 42 45 36 3 36 7 34 46 34 9 37 40 37 13 50
27 -0.91529389605818234 -3.2042196633407474 54.971605602479947 253 255 255 1.0015224687504909 16 30 11 26 43 30 50 26 45 37 3 37 7 36 46 36 9 40 40 40 13 25
28 -14.019304465853416 -0.17693399020014586 56.038286663311631 85 85 85 1.1181673317749234 11 35 50 35 45 79 3 79 16 83 43 83 7 141 46 141 9 112 40 112 13 120
29 22.171031195227162 -0.26941851478710094 49.418757046023138 255 255 255 1.3558626843022927 16 33 11 61 43 33 50 61 45 42 3 42 7 15 46 15 9 26 40 26 13 21
30 -9.5314505008103865 1.2688394543734496 63.36136030635123 255 255 255 0.4653816635848802 16 34 11 36 43 34 50 36 45 26 3 26 7 41 46 41 9 46 40 46 13 40
31 -8.751632135103284 10.785424947460326 55.748398457127003 55 89 234 0.25928106363414216 16 38 11 33 43 38 50 33 45 31 3 31 7 31 46 31 9 50 40 50 13 47
32 19.167200048687633 13.282518194383655 54.061844792345056 128 128 128 0.48810809750236572 16 39 11 34 43 39 50 34 45 32 3 32 7 32 46 32 9 36 40 36 13 48
33 -1.1933698078554007 -1.2713653666452993 57.235829729566966 120 153 231 0.32427826040982149 16 40 11 48 43 40 50 48 45 56 3 56 7 33 46 33 9 44 40 44
35 19.23242145534935 -11.069623556932424 60.588172011248446 84 110 189 0.83186877444154594 16 43 11 66 43 43 50 66 45 43 3 43 7 45 46 45 9 51 40 51 13 56
36 25.390333694523807 -10.588635904505258 57.980380835442894 249 255 255 0.42413170898218411 16 44 11 45 43 44 50 45 45 45 3 45
37 49.214326242294312 -16.128838271554926 51.648480796539801 252 97 96 0.52910508842725446 16 48 11 46 43 48 50 46 45 48 3 48 7 60 46 60 9 54 40 54 13 61
38 4.7829535541818071 -2.1498742557044541 56.755369969727361 252 254 253 1.5146334056956099 16 53 11 84 43 53 50 84 45 61 3 61 9 41 40 41 13 53
39 15.485382805134131 9.1459171196524878 61.827728774189751 66 66 66 0.8977273184052712 16 54 11 38 43 54 50 38 45 50 3 50 7 50 46 50 9 65 40 65 13 49
40 -10.312561889874264 8.7518742697737579 65.888309195090173 54 89 249 1.2190563363035478 16 55 11 52 43 55 50 52 45 51 3 51 9 49 7 38 46 38 40 49 13 46
41 19.242354671911936 8.4911211259910466 60.892980746498147 255 255 255 1.1572917591633156 16 57 11 53 43 57 50 53 13 32
42 14.47592563002774 7.4784484227109207 58.725577428731675 30 30 30 0.49141434591622324 16 58 11 54 43 58 50 54 45 52 3 52 7 51 46 51 9 62 40 62 13 45
43 5.4468019403669876 6.6260201876106235 60.018788171347509 248 60 59 0.2205251697409267 16 59 11 55 43 59 50 55 45 53 3 53 7 62 46 62 9 61 40 61 13 67
44 14.446439008647632 3.9396945907657579 62.189524830119481 70 103 249 0.70304510307256185 16 60 11 31 43 60 50 31 45 28 3 28 7 49 46 49 9 60 40 60 13 43
45 1.1373299873481164 3.2435619724789917 57.476343178523862 255 255 255 0.51584876647585809 16 61 11 59 43 61 50 59 45 54 3 54 7 30 46 30 9 57 40 57
46 42.670523506466431 -13.52708873489593 47.625892367610554 50 46 45 1.386169542880564 16 63 11 63 43 63 50 63 45 9 45 39 3 9 3 39 7 69 46 69 9 55 40 55 13 145
47 -11.001808132194427 9.6974731343115259 57.418856605844589 255 255 255 0.34627612997001572 16 65 11 69 43 65 50 69 45 65 3 65 7 71 46 71 9 68 40 68 13 72
48 -1.2206487789072586 -2.041024401073217 57.556901288176604 255 255 255 1.3225550961113794 16 67 11 85 43 67 50 85 45 60 3 60 7 58 46 58 9 108 40 108 13 181
49 -10.729073827603292 4.4649596004999257 61.754747055819507 254 253 254 1.487424798070434 16 75 11 91 43 75 50 91 45 105 3 105 7 83 46 83 9 248 40 248
50 -8.3797287876151927 9.3041346778609029 61.373781305642353 65 65 65 0.67102123350401477 16 76 11 93 43 76 50 93 45 66 3 66 7 73 46 73
51 -3.8022555928677684 -3.1325117646097618 51.341444847376629 56 56 56 0.32165436909443784 16 77 11 104 43 77 50 104 45 90 3 90 7 96 46 96 9 99 40 99 13 77
52 -14.328350288657239 -3.7160317374544247 51.484136324283682 72 72 72 0.6530632605952138 16 78 11 62 43 78 50 62 45 91 3 91 7 98 46 98 9 74 40 74 13 98
53 1.6080702031580629 -2.0137899368436076 59.101992403581264 38 41 39 1.161052471390005 16 80 11 101 43 80 50 101 45 93 3 93 7 193 46 193 9 203 40 203 13 193
54 -21.51333120676307 -2.5554989230033636 55.563700873045477 110 110 110 0.3126506962710674 16 81 11 87 43 81 50 87 45 96 3 96 7 105 46 105 9 109 40 109 13 89
56 -11.213308358222831 4.021069824750767 62.389328648483009 50 48 49 0.59945464595644993 16 86 11 90 43 86 50 90 45 103 3 103 7 82 46 82 9 121 40 121 13 231
57 -1.3285418230194106 4.0864338240576075 60.358422518138873 60 60 60 1.7660434222821288 16 89 11 74 43 89 50 74 45 72 3 72 7 74 46 74 9 83 40 83 13 216
58 -6.7268677371903687 9.7253031947868163 57.202424429030565 255 255 255 0.38474108821269293 16 90 11 68 43 90 50 68 45 110 3 110 7 70 46 70 9 75 40 75 13 78
59 8.3459603664697877 1.8366565788353941 52.862274470012757 63 63 62 0.18714205646874763 16 92 11 142 43 92 50 142 45 142 3 142 7 80 46 80 9 116 40 116 13 129
60 1.8720449934552401 -4.4095927883044919 55.916586090031771 67 67 67 0.1072937146673682 16 94 11 94 43 94 50 94 45 88 3 88 7 152 46 152 9 96 40 96 13 96
61 -19.66434397897175 -11.621496905201287 50.992848848520737 53 53 53 0.34597138643330738 16 96 11 99 43 96 50 99 45 113 3 113 7 90 46 90 9 92 40 92 13 91
62 -7.5598347396732128 -7.8429074659847746 57.725315672363983 81 81 81 0.52032226492694733 16 100 11 114 43 100 50 114 45 122 3 122 7 92 46 92 9 133 40 133 13 134
63 -11.986304177389437 -6.2521526389785844 57.017247734266981 53 53 53 0.36941233461052209 16 101 11 102 43 101 50 102 45 86 3 86 7 89 46 89 9 139 40 139 13 94
64 2.0809663092049342 -3.9334773590033349 55.700742984149571 74 74 74 0.17417436179270601 16 102 11 103 43 102 50 103 45 89 3 89 7 95 46 95 9 97 40 97 13 97
66 11.91197478217669 12.096194607120385 54.512871065404966 91 91 91 0.36036065452088628 16 105 11 96 43 105 50 96 45 108 3 108 7 88 46 88 9 127 40 127 13 128
73 -14.430736461860677 9.2813298334545742 58.427622115021613 53 53 53 0.3133047414339119 16 117 11 144 43 117 50 144 45 147 3 147 7 154 46 154 9 188 40 188 13 125
74 -4.1185542104167032 9.4477704861579799 57.479801124002535 48 48 48 0.47960145386304814 16 118 11 199 43 118 50 199 45 146 3 146 7 195 46 195 9 189 40 189 13 126
75 -4.2285470551493534 -10.624910655082138 63.760257465209598 67 67 67 0.45515313779649819 16 122 11 105 43 122 50 105 3 115 45 115 7 111 46 111 13 133
76 13.967568171130926 -9.026036524205681 59.256747164872571 58 58 58 0.57914360075064952 16 124 11 112 43 124 50 112 45 121 3 121 7 115 46 115 9 134 40 134 13 210
77 26.434093609933836 -12.009547822793618 58.134383086697639 53 53 53 1.3241973829588216 16 125 11 113 43 125 50 113 45 124 3 124 7 116 46 116 9 136 40 136 13 135
78 44.201214281271511 -23.929038504300003 55.564068915345622 255 255 255 0.18296281595942293 16 126 11 115 43 126 50 115 45 125 3 125 7 117 46 117
79 18.007153494534428 -8.2247574363000275 60.057833025577594 63 63 63 0.46874021492822365 16 128 11 117 43 128 50 117 45 126 3 126 7 121 46 121 9 137 40 137 13 137
80 17.114812024337898 -7.4815636976540336 59.438936541063043 65 65 65 0.52249168873826712 16 129 11 163 43 129 50 163 45 127 3 127 7 122 46 122 9 142 40 142 13 139
81 -8.2073132849721748 -5.7176190089130126 58.724160718353701 22 22 22 0.37846740780803784 16 130 11 172 43 130 50 172 45 168 3 168 7 124 46 124 9 143 40 143 13 141
83 17.740597906864878 -3.0279239785473302 51.005141188873452 64 149 146 0.83468683794015774 16 134 11 125 43 134 50 125 45 130 3 130 7 129 46 129
84 11.30802183462124 -2.1777113800910035 57.228392880768141 254 254 254 0.9685385145065285 16 136 11 160 43 136 50 160 45 94 3 94 7 134 46 134
85 -14.523986943468582 -2.2582807004376977 58.154269091448896 66 66 66 0.11244084821602561 16 138 11 127 43 138 50 127 45 132 3 132 7 194 46 194
86 20.473203407185618 7.1449713997802551 59.10500066864369 56 56 56 0.29743881782442899 16 139 11 148 43 139 50 148 45 184 3 184 7 157 46 157 9 155 40 155 13 185
87 26.302790378298059 -4.1411196988472527 48.172490068840155 67 153 152 0.89578271320996217 16 142 11 177 43 142 50 177 13 151
88 1.9588416513120497 -1.4434888958000638 58.218886619071988 36 37 34 0.35252385405629971 16 143 11 176 43 143 50 176 45 134 3 134 7 136 46 136 9 153 40 153 13 157
89 2.8651160024502911 -0.96405570566218968 58.71718369922236 51 51 47 0.15240288780261613 16 144 11 179 43 144 50 179 45 135 3 135 7 139 46 139 9 154 40 154 13 159
90 -11.734680050060442 -1.1111176130086446 56.893608138731729 24 24 24 0.27344397133795328 16 145 11 132 43 145 50 132 45 151 3 151 7 93 46 93 9 110 40 110 13 84
91 2.5775782009364456 -0.44643570573789104 59.164035435345625 62 62 62 0.16058907623968774 16 146 11 133 43 146 50 133 45 136 3 136 7 133 46 133 9 156 40 156 13 160
92 -1.3501610202852159 0.42453365173539215 62.651324775131108 69 69 69 0.26527014054041875 16 148 11 134 43 148 50 134 45 138 3 138 7 198 46 198 9 158 40 158 13 163
93 4.295309468861725 2.7876252369775356 56.734492202038048 61 63 62 0.190110074126944 16 151 11 157 43 151 50 157 45 120 3 120 7 145 46 145 9 163 40 163 13 167
94 46.396260019886597 -1.4070056908697859 57.33917168145917 84 84 84 0.32196438832667612 16 152 11 188 43 152 50 188 45 137 3 137 7 140 46 140 9 167 40 167 13 170
95 25.815134241601708 2.6323437826868683 58.403189428115112 254 254 254 0.27141819129819988 16 153 11 89 43 153 50 89 45 163 3 163 7 204 46 204 9 231 40 231
96 10.76146330000968 3.6149828478305293 59.897453632798147 252 255 255 0.38604705830073999 16 156 11 224 43 156 50 224 45 181 3 181 9 82 40 82 13 86
97 25.33030378089946 3.1315070799980318 56.492738186541565 57 57 57 0.46835386522734157 16 158 11 152 43 158 50 152 45 159 3 159 7 147 46 147 9 170 40 170 13 171
98 -12.92636544390588 4.3403080125625522 62.377362061957676 41 43 41 0.19482391061995061 16 160 11 150 43 160 50 150 7 137 46 137 9 174 40 174
99 -9.3721732790611227 7.6285130443702549 63.240343249321995 82 82 83 0.72641432377516346 16 163 11 195 43 163 50 195 7 156 46 156 13 186
100 25.530978408392698 9.8004973546111316 62.661752843776213 57 57 57 0.62243863462659799 16 165 11 197 43 165 50 197 45 186 3 186 7 177 46 177 9 212 40 212 13 187
101 -5.5452150427908142 9.976419836164844 62.936174457449681 66 66 66 0.80836472157305428 16 166 11 146 43 166 50 146 45 171 3 171 46 72 7 72
102 -6.9880695280722769 9.8792743182933425 61.624826013129031 252 252 252 0.87836065585252432 16 171 11 95 43 171 50 95 45 148 3 148 7 180 46 180
103 23.481075738878015 -4.0293957558519233 49.313780886383867 239 255 255 1.1824508681708037 16 174 11 165 43 174 50 165 45 174 3 174 7 187 46 187 9 205 40 220 40 205 9 220 13 192
104 1.4510313150260716 -1.1174422605167045 58.514442671382056 253 254 252 0.48792082413285859 16 177 11 207 43 177 50 207 45 176 3 176 7 197 46 197 9 185 40 185 13 158
105 -9.2602671199230784 2.7343383184492467 63.239006583437181 253 253 250 0.40366413452735167 16 179 11 211 43 179 50 211 7 217 46 217 9 211 40 211 13 201
106 -9.9325145283294543 3.1833469415210498 63.127439103937853 66 150 149 0.9968399170797837 16 181 11 189 43 181 50 189 45 203 3 203 7 208 46 208
107 -6.9856679588315851 3.8658878650379331 63.246179136709102 65 150 148 0.64088097118456178 16 184 11 190 43 184 50 190 45 202 3 202 7 210 46 210 9 193 40 193 13 206
108 21.002871973283124 4.3925051468287686 62.607388584260839 63 63 63 0.48112103012215446 16 185 11 175 43 185 50 175 45 192 3 192 7 211 46 211 9 214 40 214 13 178
109 17.238295265612724 -9.8933060494336331 60.452602163642652 246 246 246 0.28641606033717698 16 187 11 111 43 187 50 111 45 119 3 119 7 214 46 214 9 239 40 239
110 14.893921652716418 7.3775911863654402 58.016110957428872 27 27 27 0.38718770294902022 16 189 11 218 43 189 50 218 45 185 3 185 9 91 40 91
111 13.313236377597599 9.0493878332114708 62.411698197860431 60 60 60 0.20706111040420669 16 190 11 196 43 190 50 196 45 190 3 190 7 176 46 176 9 218 40 218 13 211
112 19.944063386817653 -10.642643910853234 61.29524588931897 47 47 47 0.27888999552679533 16 193 11 173 43 193 50 173 7 225 46 225
113 -9.3543741622032908 -6.0022265415531226 57.977013261700456 255 255 255 0.45578550221576908 16 194 11 246 43 194 50 246 7 228 46 228 9 141 40 141 13 138
114 1.898409351440862 -2.4696106652765057 54.835313293394755 208 98 4 0.10300329908881764 16 196 11 204 43 196 50 204
116 -7.2470250679711352 0.94752915396014836 63.001145311508701 255 255 255 0.77716749659764806 16 205 11 137 43 205 50 137 45 140 3 140 7 199 46 199 9 161 40 161
117 -9.3139556922261164 3.710911389586566 63.350151458157484 204 255 255 0.3174733340751511 16 206 11 215 43 206 50 215 45 205 3 205 7 219 46 219 9 224 40 224 13 205
119 15.974782128335226 7.2329028655055057 57.520317829758298 251 251 251 0.2395049118983425 16 208 11 228 43 208 50 228 45 218 3 218 7 241 46 241 9 244 40 244 13 234
120 -18.329893566920497 -8.8029381645358526 47.204576068946835 245 245 245 0.32302337534987002 16 213 11 247 43 213 50 247 7 234 46 234 9 241 40 241
121 -8.5730252970401288 -2.3534448386889797 51.603791536462452 118 119 121 0.54140182386267643 16 217 11 206 43 217 50 206 45 224 3 224
123 5.3261262810214491 3.2694239983789699 57.962312202727155 251 255 254 0.37022725143676299 16 222 11 214 43 222 50 214 45 204 3 204 7 206 46 206 9 196 40 196 13 202
124 -5.2230649958062179 -2.6460864166275431 53.143528118038745 254 255 255 0.32556730050838567 16 131 43 131 45 196 3 196 7 99 46 99 9 70 40 70 13 74
125 14.669136300568701 -1.704880328743019 59.619788175926132 255 255 255 2.377376986407818 11 29 16 21 43 21 50 29
126 -8.3051750500047792 2.9125772789087585 65.625591700177566 77 74 73 1.5277682677299242 11 185 16 150 50 185 43 150 45 143 3 143 9 166 40 166 13 203
127 7.5767017160553447 0.28391099793398522 55.849364891887454 255 255 255 0.026470007605446606 11 2 50 2 45 4 3 4
128 -4.5307207929608122 -4.1558995967726915 51.976653919741075 255 255 255 1.4093931689829551 11 6 50 6 45 11 3 11
314 8.4207041072589472 -2.5548437258003309 53.30907251871723 64 64 64 0.29631529208996887 9 103 40 103 13 105
129 -4.8242383187129887 4.3964470818268859 58.320788298111545 255 255 255 0.46758213459088399 11 16 16 35 43 35 50 16 45 21 3 21 9 86 40 86 13 176
130 -7.2826700569323126 -2.5000269353106468 55.835129358444199 43 52 86 1.7600530701038799 11 28 16 22 43 22 50 28 45 25 3 25 7 28 46 28 9 42 40 42 13 27
260 -5.7635644626197502 5.1460680358658406 54.650021320860048 255 255 255 0.74493211157099459 7 159 46 159 9 67 40 67 13 70
131 5.035393154962553 4.2143946927137463 55.78162299412724 91 52 20 0.23145830030786979 11 40 50 40 45 29 3 29
132 -3.8643235684244965 -1.8086286924699502 55.668341915268222 255 255 251 0.77499573685044509 11 47 50 47 45 33 3 33 9 24 40 24 13 29
318 -14.85223446629308 0.1785409158470084 63.686078375584501 29 29 29 0.32673597544102656 9 159 40 159 13 112
133 18.835437763465347 -9.4730536691522786 59.560689489754438 124 124 124 0.069695776645306198 11 41 50 41 45 35 3 35
134 -8.3924645155494417 -3.375930893782543 51.281709152496262 255 255 255 0.98842131424184343 11 27 50 27 45 38 3 38 7 35 46 35 9 39 40 39 13 24
312 -11.68170571436025 -3.416907067959237 53.8163159218918 98 98 98 0.99436952166578196 9 101 40 101 13 100
135 -5.4139097628816861 0.72438753336314243 63.30015400686203 175 175 175 0.43598914626059609 16 32 43 32 45 41 3 41 7 40 46 40 9 45 40 45 13 54
136 -4.7466871572331044 -6.575308934073365 57.216565485681635 255 255 255 0.21387794916509684 16 46 43 46 45 46 3 46 7 61 46 61
258 56.724739119550442 -15.968082075227978 62.02529788478919 81 79 78 1.3399168306851468 16 52 43 52 9 56 7 130 46 130 7 57 46 57 40 56 13 118
137 42.15262195631859 -15.236543407993587 47.987103862354793 253 255 254 0.16203678723474424 16 47 43 47 45 47 3 47
138 -18.558993694067016 5.2299402973190672 60.883946192536548 247 56 56 2.0924709044212007 11 58 16 36 43 36 50 58 45 49 3 49 7 48 46 251 46 48 7 251 9 47 9 246 40 47 40 246 13 18
268 12.794219081877502 -2.7923473408516259 53.281478516589928 60 60 58 1.6210257258525018 7 128 46 128 9 105 40 105 13 107
139 5.6570056578622925 -1.0580542151421699 58.653380511264423 252 252 252 0.16839802388946423 11 49 50 49 45 55 3 55
140 0.57853709138139042 -2.5269563490647848 56.854850638240599 45 49 47 0.84037931512354125 11 79 16 50 43 50 50 79 45 57 3 57 7 37 46 37 9 210 40 210
262 11.894227152715176 -2.669933142387793 56.75884105536516 254 254 254 0.35409384045283721 7 188 46 188 9 77 40 77
141 19.221411140458198 0.89218406118192672 50.576283361305954 69 69 69 0.085385201346035666 16 70 45 58 43 70 3 58 11 60 50 60
142 -9.4907733628443189 -1.9054395573381502 55.300351374090518 59 59 57 0.66104124197930902 11 78 16 69 43 69 50 78 45 59 3 59 7 68 46 68 9 80 40 80 13 82
256 28.326990132824104 0.77170163786999835 53.586991263348231 255 255 255 0.66232383987434806 7 42 46 42 9 28 40 28
143 42.523812974498576 -22.868050531589656 50.694697501819014 68 68 68 0.27879411116047775 11 65 50 65 45 63 3 63 7 63 46 63
266 -16.440366081300546 -4.2385755706274839 51.661034227946097 253 253 253 0.70695217704875957 11 122 50 122 9 98 40 98
145 -10.135925029572244 8.4118949581415716 60.700858528471137 17 17 14 1.4986366172104046 11 71 16 204 43 204 50 71 45 67 3 67
146 19.969371305512556 3.6016007030512314 60.756174788893262 246 247 242 1.0244291127250693 11 156 16 73 43 73 50 156 45 73 3 73 7 53 46 53 9 59 40 59 13 42
276 17.396811032438222 3.4309091357138577 61.462361396565356 61 63 62 1.3836090700673616 3 164 16 183 43 183 45 164 9 169 40 169
147 10.371018425237086 2.5341330867184531 56.73475602208606 255 255 254 2.1390780554657498 11 186 16 62 43 62 50 186 45 75 3 75 7 29 46 29
270 -16.021303836901943 -2.0999714603991846 56.524162809210324 255 255 255 0.083572623788272252 7 104 46 104 9 120 40 120 13 110
149 12.596043233795964 1.9565487802970551 55.775744561540492 69 69 67 1.1534394296337007 11 75 16 149 43 149 50 75 45 77 3 77
150 -6.9269637516549585 -1.6095801276538189 55.033482262563069 253 255 254 1.5008291865787149 11 86 50 86 45 78 3 78 7 56 46 56
264 6.9848111176046492 4.4533966104427165 59.659279543236565 50 54 55 1.5530900332505904 7 237 46 237 9 85 40 85
151 -12.817943672296392 -1.7805666424932414 56.812805831027397 40 40 40 0.83615931611423533 16 64 43 64 45 80 3 80 7 67 46 67 13 83
152 23.695023918022986 -13.110280123810135 52.246790349372098 252 253 249 0.25174395672349209 11 110 16 66 43 66 50 110 45 81 3 81
274 16.826385817385461 1.6216165218206307 52.176684287107882 254 254 254 0.15083560124993126 7 202 46 202 9 162 40 162
153 43.98747250136288 -25.324151420642345 54.616024822196131 252 252 252 0.41337544433325851 16 123 43 123 45 82 3 82 9 135 40 135
154 -6.804086023762725 -9.0346251907441228 52.515569042732636 51 51 51 0.23729304834605883 11 100 50 100 45 84 3 84 13 92
155 37.234007325434568 -18.90217433750599 44.650319326149138 76 75 71 0.59255794067609346 16 95 43 95 45 85 3 85 7 118 46 118 9 225 40 225
156 17.472764838203329 -3.5931665834298592 57.826625052273151 255 255 255 1.8410970378954989 11 171 16 132 43 132 50 171 45 92 3 92
278 21.626666141635077 9.6828479502664386 63.001735332055112 64 64 64 0.66338523798347682 16 115 43 115 9 187 40 187
158 -9.0330968615026066 -1.1427459788709937 57.266839953208489 44 44 44 1.0463471420884531 16 219 43 219 45 98 3 98
272 -14.208318289929771 -6.4657526120867015 56.880621869279352 255 255 255 0.13726378350834667 7 123 46 123 9 138 40 138
159 -14.023568320225836 -0.20478142098533902 62.540127564893474 248 248 248 0.74433969056739291 11 153 16 147 43 147 50 153 45 99 3 99 7 142 46 142 9 113 40 113 13 85
160 14.273916579848493 2.1183898626415805 54.440899980682467 252 252 252 1.1134442552190571 11 212 16 56 43 56 50 212 45 101 3 101 7 43 46 43 9 29 40 29
161 1.1631559315260245 4.3073170384549329 61.787204050767073 66 70 69 1.4428373428539683 16 74 43 74 45 104 3 104 7 212 46 212 9 213 40 213 13 177
162 -7.2149273357785102 10.315060440942645 53.031445212677255 29 59 207 0.53777014901016829 16 93 43 93 45 111 3 111
292 2.6430670832012284 -2.9607488443717789 54.029893549809877 195 102 11 0.6421446087083521 16 224 43 224 9 250 40 250
163 -7.6651972647727167 -10.015335329571464 56.516937858005178 254 254 254 1.6465749216494774 11 67 16 42 43 42 45 114 50 67 3 114 7 44 46 44 9 72 40 72
164 16.724693362423416 -11.365844150290705 52.861698535623709 71 71 71 0.39795225253735111 11 106 16 99 43 99 50 106 45 116 3 116 7 91 46 91 9 93 40 93 13 93
165 24.467811298903978 -4.9985999753277355 59.944945899064066 241 243 242 0.060503191752091699 11 121 50 121 45 128 3 128
167 8.7851351703593661 -1.9462342596044362 58.129492570579202 81 81 81 0.75866544943589076 16 137 43 137 45 131 3 131 7 102 46 102 9 88 40 88
168 -12.446414591271045 10.367671106337323 62.139572191097642 249 249 249 1.1159392037474449 11 143 16 119 43 119 45 145 50 143 3 145
290 -7.4939150577702511 -2.6454363074795597 53.071469765895131 120 122 121 1.4824853610540512 3 227 7 250 45 227 46 250 9 237 40 237 13 223
169 14.421627919115519 8.639583750148498 57.742379046178954 89 89 89 0.22361043024387028 11 198 50 198 45 150 3 150
170 14.922199881037066 8.3203628566168408 60.188230792810849 103 103 103 0.03010388534584324 11 219 50 219 45 152 3 152
300 -8.4305658304672519 4.2467713679067245 51.65643618335524 0 0 0 1.876161944264114 7 7 40 9 46 7 9 9
171 9.4001125173009257 4.2855148145543307 60.814648100013535 59 58 53 1.0725191090884851 16 141 43 141 45 158 3 158 7 81 46 81 9 84 40 84
172 3.8702963712585734 3.0804606916357193 55.63865721018626 55 56 52 0.48960199916643304 11 154 16 182 43 182 50 154 45 160 3 160
173 20.715954295756195 2.54054007502023 52.459368889563756 64 64 64 1.0043902704465248 16 155 43 155 45 161 3 161
174 17.729685335894445 -11.162971624302003 52.963801178555734 253 254 254 0.45729019712020469 11 39 50 39 45 169 3 169
288 0.98584593164089362 -1.6806263904056389 58.011490349084447 253 254 255 0.15590474031125787 7 230 46 230 9 228 40 228 13 228
175 51.547109973308771 -16.966945943198692 61.768369811418118 254 255 253 0.55419434297988934 11 120 16 172 43 172 50 120 45 172 3 172
176 7.9331253647972977 -2.2740872210651961 55.505389870725196 251 251 251 1.3328735883713114 11 241 50 241 45 173 3 173
298 28.565012342180093 -14.300995797321496 59.180308811848995 254 254 247 1.2015565263146875 16 41 11 44 43 41 50 44 45 44 3 44 7 46 46 46 9 52 40 52 16 2 11 3 43 2 50 3 45 1 3 1 7 4 46 4 13 57
177 0.42832998515294224 -1.8727786523926551 59.084049001191545 40 44 47 0.53080381913007912 16 176 43 176 45 175 3 175
178 -6.1066585764755601 1.2170855894071055 64.195360538688988 90 90 90 1.1707534241710786 11 162 50 162 45 177 3 177 13 166
180 12.507193754784346 2.3241090185493793 55.061769961052001 74 75 70 0.66275965700592943 11 213 16 167 43 167 45 179 50 213 3 179
302 9.0256758996843196 -6.8668113266916118 59.310541429862567 255 255 255 0.062890379972015076 9 10 40 10 13 11
181 -4.1473272229907643 4.0001215455766879 62.231649671825799 57 57 57 0.25128802765916869 11 151 50 151 45 183 3 183 7 150 46 150 9 192 40 192 13 207
182 -21.565196556487727 5.4791273291701312 57.190207397699496 46 46 46 1.1859405590303524 11 72 16 186 43 186 45 189 50 72 45 69 3 69 3 189 7 173 46 173 9 182 40 182 13 182
296 35.57296914320402 -11.92836984462809 42.364743845581991 255 255 255 0.32516198058167767 9 144 46 125 7 125 40 144 13 99
183 22.357313999842702 0.90680327628457169 59.181558356845471 67 67 67 0.24923419468678176 11 183 50 183 45 200 3 200
184 18.508811215149098 0.94456241479381275 55.036765807242894 255 255 255 2.0397407230278639 16 202 43 202 45 201 3 201 7 247 46 247 9 230 9 234 40 234 40 230 13 165
306 -1.4356997745136502 -4.5414027253114426 55.607695728321367 254 254 254 0.33504410522077038 9 38 40 38 13 52
185 -11.387863114245903 -9.9849916907679166 50.575001769270841 100 100 100 0.67235886248540555 16 210 43 210 45 209 3 209
186 5.8242645215506661 3.3118051469823429 60.25950604150335 250 251 247 0.0043161075467084394 11 236 50 236 45 213 3 213
316 20.520949541940531 -2.8136902884672077 50.03959318808235 64 145 144 0.10957206250510616 16 140 43 140 13 109
187 20.768065477211522 2.1386364505156195 63.522596291294285 117 117 117 0.61851612558542834 11 210 50 210 45 215 3 215
188 7.6033126626631562 3.9295929462031376 59.500674396158189 255 255 250 0.70538035562162005 16 168 43 168 45 216 3 216 7 149 46 149 9 119 40 119 13 119
310 11.219480442191486 4.168130884314392 61.575640895822374 40 40 40 0.14175040754504056 3 182 45 182 13 87
189 4.0774779062452202 -2.7320256559957445 60.596007785784074 204 109 13 1.3128464431855429 16 216 43 216 45 222 3 222
190 2.8851393377824803 -2.1185103381605379 57.174692585517008 246 245 240 0.70426696966220736 16 175 43 175 45 223 3 223 7 103 46 103 9 79 40 79 13 81
304 2.3473822933035646 -2.7229177988158253 55.246807406517007 249 159 32 0.10286444709016274 9 23 40 23 13 26
191 -10.603977151923443 -1.5732546196625912 56.839338848734769 251 251 251 0.51061801519185324 16 199 43 199 45 226 3 226 7 196 46 196 9 152 40 152 13 73
192 -9.754999923619895 -2.781735216900854 51.801431001087842 126 126 126 0.31197597409897948 11 242 50 242 45 228 3 228 7 246 46 246
193 22.705941781596092 -2.5873031820973384 50.43458431608471 149 176 174 1.7278442454897101 16 20 11 20 43 20 50 20 45 22 16 218 11 239 43 218 50 239 45 198 16 178 43 178 3 22 3 198 7 26 7 166 7 223 46 26 46 166 46 223 9 229 40 229 13 196
324 -13.519942321730074 0.074879908813969359 61.867353871531151 245 245 245 0.30163726267084251 9 201 40 201 13 162
195 -9.7418562886378126 5.2390853255954957 54.429895613899539 255 255 255 0.95110880939236631 11 92 50 92 45 68 3 68 7 86 46 86 9 66 40 66
196 -11.738107218688491 0.2049494711137268 60.444001534958225 63 63 63 0.19690409073026546 11 77 50 77 45 109 3 109
197 -11.499016073669198 0.86705362607447689 62.799776448650626 255 255 255 0.79353348519449574 11 88 50 88 45 141 3 141 7 200 46 200 9 199 40 199
199 -13.636260811708079 -1.8082121619717439 55.984319939591309 255 255 255 0.12279268332888615 11 208 50 208 45 225 3 225
200 24.499003926880192 0.90034956695760804 51.527948100055241 253 253 253 2.1386566392996373 50 184 45 76 11 184 11 123 16 71 50 123 43 71 45 178 3 76 3 178 7 55 7 79 46 55 46 79 13 39
202 -11.044148424571398 9.5154332544257567 60.926600529367533 255 255 255 0.089996669876183585 11 70 45 107 50 70 3 107
204 -11.67005569860874 8.4805365032671265 61.929393756118316 56 56 55 0.079496121468355802 11 174 45 191 50 174 3 191
326 38.131192901028975 -8.9177224689486767 44.418501618391474 244 244 244 1.4407943802305543 9 151 40 151 13 195 46 66 7 66
205 -9.6985679086420724 -10.239085248511042 55.434212595822444 56 56 56 1.9112126390207693 11 98 50 98 45 15 3 15 3 64 16 98 43 98 45 64
206 32.90483184523702 -15.192235629837915 40.169225224003434 199 101 2 1.0129043448679003 16 23 11 24 43 23 50 24 45 19 3 19 16 207 11 244 43 207 50 244 45 194 3 194 7 227 46 227 9 226 40 226 13 22 13 222
320 1.9483432341629729 4.0673356208776017 59.339383360131549 245 245 244 0.045120687305355268 9 173 40 173 13 121
207 12.049708063839855 5.6138023148103002 61.367958913554126 255 255 255 0.99307126406185797 16 12 43 12 7 12 46 12 9 14 40 14 13 15
208 -13.851176192796817 0.35398711923912268 63.477234509789504 106 106 106 0.05560491493755286 16 31 43 31 7 39 46 39
330 16.370134776222127 3.0443207182911753 57.790838583289876 253 254 254 0.85429455598947712 7 232 46 232 13 218
209 -10.254217483316566 -6.9438265300563264 57.488812770617749 255 255 255 0.25056073769778786 16 45 43 45 7 47 46 47 9 53 40 53 13 58
212 19.492965990069461 1.6975736951424785 53.028014068368563 65 65 65 0.49346102719150747 16 72 43 72 7 65 46 65 9 117 40 117 13 114
334 -9.9557024174376849 9.2642760155947776 57.583693572900316 110 110 110 0.10054571122334177 11 231 50 231 13 236
213 17.928252361218821 3.7936130526755503 61.826284842401293 250 252 251 1.4976196764117589 16 157 43 157 7 76 46 76 9 172 40 172 13 173
214 25.642311232065836 0.072517761578181822 49.530774948165494 71 71 71 0.98173842706891945 11 140 50 140 7 78 3 100 45 100 46 78
328 -8.2037818038174599 3.2745253069726403 62.16326536314272 67 148 147 1.7967182894137252 3 180 7 181 45 180 46 181 13 204
215 -9.2469207113734466 10.611055947398077 59.870892182659674 47 48 46 0.070197523251533445 16 91 43 91 7 87 46 87
216 -5.9571375953272439 -5.6408046074274321 57.558977601064882 251 251 251 0.36262377207509916 3 87 45 87 7 94 46 94 9 95 40 95 13 95
338 -10.694479581266656 -2.226518366916701 53.034292417626233 191 191 191 2.2708617085311187 16 68 43 68 45 95 3 95 7 59 46 59 9 76 40 76 13 80 7 190 46 190 13 147
217 6.5883557699102742 -2.6192601573269449 54.10764155825148 61 64 64 0.47171985233917429 16 133 43 133 7 100 46 100 9 102 40 102 13 103
219 -12.424218669126621 -0.65435623950492694 55.581253386299466 254 254 254 1.1431103470629524 16 82 43 82 7 106 46 106 9 111 40 111 13 199 9 202 40 202
220 -7.1003581255912636 -1.0803349587489333 57.903528206090854 190 190 190 1.6442592101358231 11 130 50 130 7 107 46 107
221 -9.4313931544213698 0.58405773667014127 63.13274299134229 64 64 64 1.6656008166463072 3 139 45 139 7 108 11 136 50 136 46 108
222 29.070907798146806 -1.2585909289546222 47.833229101407397 254 254 254 0.49819819189123082 16 79 43 79 7 109 46 109 9 114 40 114 13 124
336 -26.063763289526559 4.2601613741258397 52.965980433259624 113 113 113 1.2512413489164855 16 16 11 32 43 16 50 32 45 30 3 30 7 19 46 19 9 33 40 33 13 28 43 223 13 232 16 223
223 38.342188578774163 -21.45875957141239 43.78717989824365 27 50 167 0.036451604155593287 3 118 45 118 7 113 46 113
224 37.591847835527354 -11.439622589999155 43.773103925561379 69 155 154 0.20878522132534391 3 129 45 129 7 126 46 126 9 145 40 145 13 144
227 10.912106136068891 3.1409796018307747 58.57459980150476 184 185 186 0.27252750376882268 16 154 43 154 7 146 46 146 9 165 40 165
228 3.9876172751413401 3.7038719238534616 57.366902364392793 225 225 219 0.093903177424256662 16 159 43 159 7 148 46 148
286 -11.469456365520099 4.5911831138712484 59.089951641218597 253 253 253 0.39614004500569189 46 84 9 222 7 84 40 222
229 -22.598884841764242 4.660945949830853 53.842876281253069 44 44 43 0.94833652115816691 11 149 50 149 7 153 46 153
230 15.833539626053287 6.9735680393252126 58.01622058883936 255 255 255 0.15832002691000668 16 114 43 114 7 155 46 155 9 125 40 125
232 37.940578110531952 -20.576688293395609 43.289418713069999 253 255 255 0.031504328690822085 3 165 45 165 7 165 46 165
233 -7.4541442390120771 -1.7889597934614252 54.101723377789327 255 255 253 0.11092671579519649 16 162 43 162 7 168 46 168
234 -8.6248404880562095 4.587634570892809 61.580815565578106 56 58 57 0.15081301879291895 16 161 43 161 7 170 46 170
235 5.2960556596723105 6.862608701313766 59.489760599120956 191 10 8 0.065452867913977891 16 188 43 188 7 174 46 174
236 -9.5551975595013392 8.4264440191439061 62.321864250010172 12 15 22 0.18617851514560912 16 191 43 191 7 175 46 175
237 -11.244533104527733 -1.923377969836862 56.882939861808893 61 61 61 1.0528884078473193 3 133 45 133 7 182 46 182 9 150 40 150 13 154
238 -0.20625988494313302 -2.0046316734970535 54.711289698448688 254 255 255 0.88048570187220621 16 197 43 197 7 184 46 184 40 227 9 227
240 15.018989462508733 3.2323203733294767 58.944271837282486 248 248 248 0.2489990163673311 16 201 43 201 7 207 46 207 9 168 40 168 13 116
241 -11.723778296240795 4.8952070238051384 58.927601481138439 255 255 255 1.4907045098960048 16 97 43 97 7 215 46 215 9 123 40 123 7 161 46 161
242 -13.393228280643754 -1.4360415210492647 58.430783174338565 113 113 113 0.85444029892567919 16 225 43 225 7 229 46 229 13 229
243 -13.934107365594837 -10.848339645117779 52.365404659234557 118 118 118 0.48861741705002953 16 211 43 211 7 233 46 233 13 224
244 -6.9248189767667832 -6.1095667177757784 57.86033293666339 112 112 112 0.109939526224408 16 214 43 214 7 244 46 244
245 5.0556913316185668 5.0187539132986263 59.833401840701754 126 126 125 2.9594714982387611 16 203 11 227 43 203 50 227 7 172 3 170 16 107 43 107 45 170 7 163 46 163 46 172 9 175 9 177 40 175 40 177 13 179
248 7.2815992677427293 3.331762025287329 57.958737697895891 58 69 111 2.3554294091781212 3 74 45 74 7 54 46 54 16 85 11 155 43 85 50 155 45 102 3 102 9 58 40 58 13 66
250 -24.706965749332866 -7.1604235910542631 60.43331610742127 255 255 255 1.2186572081322247 7 1 46 1 9 1 40 1
251 4.4677476214903864 0.78452695426656183 61.233177408096608 255 255 255 1.413417099970508 7 2 46 2 9 2 40 2 13 2
252 25.95869638460541 -4.6937793398838501 51.634275961489955 132 216 217 0.58200706653224787 16 5 43 5 9 4 7 5 46 5 40 4 13 4
253 -9.7696203249718447 -4.8923940120329448 58.833339690023863 255 255 255 0.36837828366594888 7 9 46 9 9 16 40 16
254 -2.8062828957550083 -4.3041298605735152 53.797985407470605 255 255 255 1.9552340019284737 16 14 43 14 9 22 40 22
255 15.187444067584336 1.0340333217557269 52.018783206410063 153 153 153 1.1990408248445683 7 239 46 22 9 25 46 239 7 22 40 25 13 35
257 -8.5020219105995487 6.1940544863093834 63.754387059912887 241 131 9 0.4451330816891913 7 52 46 52 9 48 40 48 13 44
259 11.80318394520493 8.0213117558793723 60.263463171419431 255 255 255 0.22203704121744805 11 76 50 76 9 63 40 63
261 35.900342685851058 -17.362941541221151 41.024326441404654 254 255 253 0.75861029639177813 16 127 43 127 9 73 40 73
263 16.936577748028633 -1.7980071436079157 51.239608211317979 255 255 255 1.299028101254438 11 131 50 131 9 81 40 81
265 17.857755953743645 0.59673738992636682 50.270629363141282 255 255 255 0.20563104370355778 46 77 9 90 7 77 40 90 13 113
267 10.650686097378109 -2.6627358659241787 53.306275170552794 63 63 63 0.96164938606668426 7 127 9 104 46 127 40 104 13 106
269 12.632363612386168 3.1181099015277947 56.007831249579766 65 65 59 1.3469881952488696 7 205 46 205 9 118 40 118 13 115
271 35.992222582367049 -20.619060344250553 41.275619855871462 32 62 213 0.5048775072888092 7 112 46 112 9 130 40 130
273 -12.084267441617243 -0.16443281923210915 62.416204309487114 64 64 64 0.86020501879615519 11 181 50 181 9 157 40 157 13 161
275 15.650822813802147 2.8394582677343885 58.762004276626932 152 152 150 0.57700708748036422 7 203 46 203 9 164 40 164
277 -8.8733287551861348 5.8136787446433384 64.791055391488811 64 64 60 0.12311903688638079 7 167 46 167 9 181 40 181
279 -6.0977523587006424 -6.8831914965562229 58.058674386626826 255 255 255 0.085563084100251485 7 120 46 120 9 190 40 190
280 -9.5109659434944867 -1.6010213324210145 59.553920981555684 254 254 254 0.78838283256468167 7 249 46 249 9 191 40 191
281 40.078471080985203 -4.1623567332132527 45.066258892744266 35 35 35 1.596464119188123 7 201 16 221 43 221 46 201 9 197 40 197 7 248 46 248 13 200 13 239
282 11.136308400115437 -2.6613355939445054 61.012730719438231 58 58 58 0.27949528046314881 7 191 46 191 9 204 40 204
283 -5.9394060142494292 4.4623073835005229 55.243280421990228 246 243 242 0.043121708459224958 16 88 43 88 9 215 40 215
285 8.534729887533949 4.6208123585526906 59.954896793458353 65 65 62 1.287686133551144 7 221 46 221 9 221 40 221 13 213
287 23.764468576864132 -5.0576282791241951 49.129294496515328 68 148 147 0.89253349313776265 7 224 46 224 9 223 40 223 13 142
289 34.038528823163219 -9.1135133662181822 42.925198681343439 82 181 180 0.11433443591101075 7 222 46 222 9 236 40 236 13 227
291 -6.7939593906635123 4.6898200304647775 54.093136759085681 119 119 119 0.47791011244609954 11 216 50 216 9 247 40 247 13 220 7 216 46 216
293 21.193825166247592 2.4850703713665072 56.970451011016181 125 125 125 0.56379958026058474 7 21 9 31 46 21 40 31 13 20
297 5.0857911142317995 6.0252742325461872 59.990691890875027 81 75 75 0.23512471258351395 7 158 9 183 46 158 40 183 13 183
299 50.270516756814011 -14.853065012038263 53.372430683850219 127 127 126 2.1684146604636165 9 43 16 49 43 49 40 43 7 101 46 101 13 31 11 80 50 80
301 17.797988030083932 11.233758143793459 58.017545583681979 255 255 255 0.38552017359610069 9 6 40 6 13 9
303 -1.0472310592905261 5.4989258098108627 60.424992785535864 255 255 255 0.53249515692834259 9 13 40 13 13 14
305 -9.0366832141541948 3.0460655716476595 62.820952369648346 37 94 92 0.20252777405768718 9 32 40 32 13 41
307 15.179557052200337 -2.9408632896870439 56.68463214664969 255 255 253 0.91007336928153271 9 106 40 106 13 62
308 -18.244661735552302 5.4519835905040752 61.532738069565553 233 5 4 0.7968182772149689 9 180 40 180 13 75
309 38.124899834112959 -20.650725086624401 44.906926080179787 77 77 77 0.10288946140555096 9 71 40 71 13 76
311 -17.005490741511789 4.5226801517190598 59.064769534596415 251 255 255 0.17272826765393826 7 114 46 114 13 90
315 0.72258886852005455 -2.0497775382044821 56.353107165586088 51 51 51 0.1458199392073066 9 78 40 78 13 108
317 -11.397890338719703 0.35245944216720876 61.471825421101265 252 252 252 0.27351180303254213 9 200 40 200 13 111
319 6.3802849168070246 3.7943222490514752 61.96973190083704 45 49 53 1.0703676492097272 9 194 40 194 13 117
321 -14.771711656924889 -10.296348563744187 51.298236026819545 251 251 251 0.73233325211244304 11 107 50 107 13 130
323 1.6368388580251394 -2.4247834697211306 57.012990818063585 43 43 43 0.15470251970545754 9 147 40 147 13 150
325 17.384630565280496 -3.0681233851137439 60.732705739940755 84 84 84 0.38725427433444298 9 149 40 149 13 190
327 -0.73392251144865306 -1.0502121667999973 57.781576758919677 21 42 141 0.54576166621569533 7 138 46 138 13 198
329 -9.3229880141442276 7.9889912095231894 62.675335182602723 43 49 72 0.025032205212817456 9 126 13 215 40 126
331 -0.041115799751134101 4.0468996047220172 60.061715880813118 251 254 254 1.4582564896527568 9 233 40 233 13 219
333 -24.724116230347995 4.5208628926021674 53.612248297295395 103 103 103 0.41002184023326826 3 188 11 233 45 188 50 233 13 233
335 33.96041471925242 -16.812871573611162 40.767856111696695 219 110 3 0.24985631317509185 3 220 16 226 43 226 45 220 13 237
337 -21.128574807740748 4.9841165312741076 55.402609713699462 159 159 159 2.6046386769396714 7 240 46 240 9 217 40 217 13 214 7 85 9 124 46 85 40 124 13 123
